ply
format ascii 1.0
element vertex 1153
property double x
property double y
property double z
property uchar red
property uchar green
property uchar blue
end_header
-21.506587 28.439069 9.447605 167 154 130
-21.531505 28.491675 8.855453 174 160 134
-21.553660 28.322093 9.636280 157 144 122
-21.471179 28.979362 6.358006 113 103 85
-21.564117 28.564081 8.001662 196 184 159
-21.497524 28.260033 9.978261 189 173 146
-21.427892 28.349072 8.997971 179 164 142
-21.350578 28.593683 7.057220 180 171 144
-21.289887 28.158365 9.761529 150 138 117
-21.387316 28.586838 6.013439 169 157 141
-21.130774 28.422909 7.344081 165 152 129
-21.254037 28.098829 8.412403 182 170 145
-20.893809 27.850175 9.583426 159 143 122
-20.676454 27.557595 10.013392 169 153 128
-20.527818 27.404059 10.489878 172 159 138
-20.554505 27.591910 9.070399 188 173 144
-20.423736 27.668459 7.465718 200 184 161
-20.061504 27.387474 5.141263 194 179 155
-19.831140 26.711979 10.425946 169 156 133
-18.802225 25.551925 12.599427 124 112 95
-18.645029 25.768869 8.715976 202 188 160
-18.776397 25.409943 9.355997 189 177 151
-18.178609 24.915090 11.198527 156 141 120
-18.220071 24.820519 9.839237 154 143 116
-18.212739 24.659880 11.056268 152 139 122
-18.214341 24.661802 11.056476 152 139 122
-17.932194 24.619768 9.700660 150 138 121
-17.857384 24.339676 10.813581 170 159 137
-17.898927 24.720290 8.125417 214 202 176
-17.574474 23.930844 11.301943 148 133 112
-24.509260 19.560674 2.308700 190 196 194
-17.424062 24.105574 7.765111 219 208 185
-17.102030 24.388648 6.265218 168 153 130
-17.047533 23.432528 11.433406 150 136 116
-17.099099 23.540738 10.366729 184 172 148
-17.036207 23.301882 11.889527 158 147 127
-17.031699 23.676453 8.143491 225 213 187
-16.989012 23.408622 10.133795 190 175 146
-16.934441 23.386988 10.165144 187 173 146
-16.939896 23.377133 10.163218 187 173 146
-16.830850 23.141954 11.811843 163 149 124
-16.831575 23.141357 11.810522 163 149 124
-16.806270 23.087291 11.644630 149 138 118
-16.897577 23.531297 7.950070 223 213 189
-16.782782 23.605380 7.575289 221 209 183
-16.709150 23.468953 8.240174 214 200 174
-16.656727 23.452609 7.644242 220 212 192
-16.625277 23.075806 10.415486 180 164 138
-16.618843 23.458183 5.698421 188 174 147
-16.342698 22.754732 11.115801 148 133 113
-16.447813 22.888226 9.312851 199 185 158
-15.846449 22.761711 13.154397 148 135 113
-16.348416 22.734105 10.513323 188 172 146
-16.315137 22.636472 11.184566 148 133 113
-16.344576 22.957911 8.485531 203 189 165
-16.220816 22.575731 11.857738 143 130 113
-16.233428 22.369150 12.098685 136 123 106
-16.367732 22.996882 6.296427 191 176 147
-16.098967 22.788826 7.645683 213 202 180
-16.082689 22.762438 7.307595 216 204 180
-15.992882 22.268772 11.267354 219 206 180
-15.924196 22.315774 11.304027 191 176 148
-15.933950 22.308483 11.280317 204 188 161
-16.039942 22.591636 8.586632 207 193 167
-15.871538 22.329087 10.290456 177 163 137
-16.054825 22.928685 5.078076 202 188 161
-15.884483 22.396079 9.255052 209 193 168
-15.894880 22.382648 9.254470 204 190 164
-15.798364 22.100213 11.651772 176 163 141
-15.793970 22.102312 11.655095 176 163 141
-15.876894 22.605591 6.578025 220 207 181
-15.772045 22.121571 10.423491 176 162 136
-15.716770 21.767378 11.956685 138 127 108
-15.670662 22.097149 9.671465 177 161 136
-15.564479 21.808592 11.446545 164 150 126
-15.531346 21.887234 10.289128 122 107 94
-15.474503 21.961157 9.356495 197 182 159
-15.362709 21.789670 10.553565 151 134 109
-15.321647 21.886731 9.730932 179 163 138
-15.330133 21.940324 7.891088 224 210 185
-15.298254 21.878997 7.999174 210 196 172
-15.262741 21.755909 9.175222 206 192 166
-15.189600 21.940922 5.454491 201 190 169
-14.878148 21.229237 10.168677 201 186 157
-14.875067 21.279692 9.601756 195 180 157
-14.866658 21.286526 9.604035 195 180 157
-14.873802 21.066649 10.999948 181 167 144
-14.705302 21.425499 6.425572 178 163 140
-14.590671 21.190749 7.777710 212 198 171
-14.540624 21.137649 7.881580 211 199 174
-14.555880 21.276159 6.183639 205 190 169
-14.533567 21.170546 6.976727 212 200 177
-14.465990 20.998244 8.133492 182 169 145
-14.298339 20.410907 10.999829 188 172 146
-14.134645 20.477243 10.503155 200 185 159
-13.791209 20.364514 7.613565 223 210 191
-13.755835 19.809773 11.734607 181 167 142
-13.648084 19.853329 11.767264 167 151 125
-13.525092 19.924291 9.488699 202 186 161
-18.141645 18.037841 3.244932 169 164 152
-13.466479 19.982726 8.283310 214 200 179
-13.176212 19.426017 11.069102 171 158 136
-13.267600 19.374224 11.042914 171 158 136
-13.140930 19.593369 8.822668 207 193 168
-12.664673 18.604515 12.879697 133 119 99
-11.876554 18.891765 13.536638 181 170 152
-12.634360 18.656354 10.342900 195 179 154
-12.664019 18.641210 10.334049 195 179 154
-12.653070 18.970447 6.456386 190 175 151
-16.539787 16.676112 4.103912 214 208 194
-11.305956 17.545521 7.855488 215 203 181
-11.301936 17.547028 7.861350 215 202 180
-25.326807 11.709414 1.437462 195 200 200
-10.799288 16.454086 11.438980 144 130 112
-15.431930 14.409566 5.833697 179 167 145
-15.233798 14.392815 6.141460 167 153 131
-8.757803 14.366783 11.937108 187 171 145
-14.112722 12.588752 3.717658 186 170 146
-12.917762 12.555368 7.410231 153 138 118
-13.726617 12.379378 5.647619 95 88 79
-13.390067 12.352170 5.091098 144 134 121
-7.892237 13.294976 9.241642 159 144 123
-13.165926 11.965801 3.734633 204 195 178
-12.897297 11.564933 7.045116 206 192 166
-12.416093 11.327472 4.355891 147 134 118
-12.164202 10.913251 6.197014 207 192 168
-12.472527 10.790878 4.441453 167 161 149
-10.284033 8.078624 6.167429 214 204 188
-10.094629 8.107082 6.202681 214 204 188
-9.426964 7.587036 2.993113 195 186 170
-8.514306 7.029458 7.618272 168 153 130
-8.061636 6.292912 8.202904 156 144 123
-8.345349 6.391692 4.275384 170 158 140
-8.071162 5.820937 6.410333 201 193 176
-6.934937 5.542874 8.814961 150 136 119
-7.021836 5.373906 7.865857 185 169 146
-7.087495 5.151235 5.882812 228 219 201
-7.201832 5.137347 5.875667 213 199 180
-6.238429 4.175194 6.552078 95 84 72
-6.292894 3.763583 6.704147 225 218 202
-5.901458 3.625817 7.015924 208 200 184
-5.019366 2.858822 4.752875 210 195 174
-4.980277 2.868629 4.755263 210 195 174
-4.683089 2.620209 4.179673 214 202 180
-4.501193 2.359280 4.849000 224 213 193
-4.330801 2.164577 5.449873 231 218 199
-4.312803 2.266364 3.837965 206 189 164
-4.338678 2.276495 3.976759 210 189 165
-3.852079 1.874758 8.127449 173 158 135
-3.317559 1.836796 6.939948 227 213 193
-3.993165 1.863124 3.928575 223 208 187
-3.306093 1.404935 8.397985 168 151 132
-3.609408 1.511548 4.473388 222 214 195
-3.199193 1.138998 3.143295 172 159 141
-2.569131 0.734630 7.746983 80 68 58
-2.513322 0.516652 8.374286 194 177 153
-2.491685 0.535926 7.825474 178 162 144
-1.914109 0.488064 5.003927 145 132 119
-2.268836 0.200828 4.558667 177 165 149
-1.824664 -0.164769 8.781925 205 189 164
-1.997598 -0.206201 7.810598 190 176 155
-2.205683 0.057187 4.240144 143 135 121
-2.202630 -0.107605 4.530837 178 167 150
-1.724006 -0.444912 5.196719 214 203 182
-1.723357 -0.444441 5.196350 214 203 182
-0.789319 -1.397919 3.686613 195 182 162
-0.062604 -2.379511 7.528672 203 188 170
1.375515 -3.494873 4.824346 154 144 124
1.491750 -3.648703 6.580800 188 180 163
1.285832 -3.640968 3.672382 201 188 169
1.943990 -4.419739 6.814041 214 204 187
1.937869 -4.423180 6.816029 184 177 161
2.739769 -4.755956 8.258154 184 169 144
2.769660 -4.752909 8.261871 184 169 144
2.193020 -4.586964 5.315213 199 184 165
2.493341 -4.720627 6.503783 229 220 203
2.896235 -5.014702 2.930951 167 161 152
4.553702 -6.509974 8.116369 116 100 83
4.542718 -6.509643 8.116066 126 109 90
1.535588 -5.933119 2.836381 157 144 128
3.956936 -6.708723 3.189684 171 160 143
4.591280 -7.077010 4.943582 199 187 166
6.544164 -7.883545 9.011859 170 153 124
5.694203 -7.861827 9.032072 174 154 128
7.000632 -9.451842 4.247746 165 149 130
7.319637 -9.634878 3.644556 182 169 148
8.092553 -10.252324 5.772898 143 130 115
8.617814 -10.858744 8.083205 182 167 142
8.816129 -10.906279 8.104700 182 167 142
9.367523 -11.580219 8.126385 190 175 151
9.569079 -11.982769 8.596386 178 160 137
9.688726 -12.214486 8.026019 196 180 155
9.712736 -12.246500 5.390590 196 186 161
10.962334 -13.510699 5.605918 123 109 95
17.781293 -15.962262 10.249459 55 47 42
11.299655 -14.248922 7.163620 210 195 173
12.128939 -14.866891 6.771949 197 185 163
14.283262 -17.075203 9.657557 162 149 130
16.487335 -19.444933 8.671125 201 190 169
21.199792 -23.741668 4.476629 196 185 162
22.677553 -24.955150 5.913852 203 190 173
25.644539 -29.770638 4.056716 133 130 119
27.162851 -32.524153 6.104307 186 175 155
-21.237441 28.166139 8.276343 192 179 154
-21.097640 28.010903 8.201260 190 177 153
-20.596693 26.902178 11.967252 120 111 96
-20.468243 27.144685 9.616487 183 167 142
-20.354239 27.233289 8.743740 201 185 159
-20.342404 27.483642 4.964123 182 163 139
-20.152256 27.129728 7.965234 200 189 167
-20.155625 27.067745 8.086720 186 175 155
-20.141895 27.001159 8.874635 177 165 143
-20.125677 26.881767 8.328417 206 191 167
-20.131143 26.876395 8.327566 206 191 167
-23.568499 23.564947 3.252183 151 141 124
-19.861954 26.850214 7.458283 207 196 174
-19.884409 26.298386 11.882980 104 92 78
-19.773588 26.660657 8.044228 169 157 135
-19.778477 26.421009 9.132571 193 178 155
-19.754033 26.281456 10.807551 160 144 120
-19.606583 25.937868 11.705542 149 138 120
-19.597509 25.952498 11.701029 152 137 113
-19.538132 25.896014 11.620389 171 155 132
-19.270275 26.390881 6.402438 194 182 162
-19.319773 25.749893 12.814189 130 118 99
-19.332346 26.008001 9.521425 208 194 166
-19.274837 25.972816 8.360443 190 176 151
-19.189804 26.092186 7.477886 217 206 180
-19.196428 25.447858 12.222436 116 105 89
-19.056588 25.784798 9.774472 184 170 143
-19.196770 25.625102 9.906878 200 186 159
-19.006343 25.894069 6.170078 200 186 163
-19.095502 25.261367 12.228014 114 101 83
-18.986033 25.529202 10.215887 161 149 127
-18.979674 25.410884 10.355668 182 169 143
-18.808761 25.286686 10.073601 147 134 115
-18.720254 25.399290 9.859916 194 182 160
-18.547720 25.655084 7.714536 193 179 153
-18.618520 25.470195 7.560698 194 182 162
-18.529411 25.314556 8.316674 201 189 164
-18.421723 24.991191 12.778956 147 135 116
-18.537150 25.077862 9.641514 171 156 129
-18.405797 24.828275 10.707839 186 172 146
-18.211130 24.663521 10.753866 174 160 134
-18.012299 24.318531 12.155939 112 100 81
-17.826607 24.580773 10.098386 188 173 155
-17.848530 24.861079 5.396459 209 199 171
-17.859260 24.135399 11.479534 163 147 124
-17.713181 24.291309 9.186782 210 198 170
-17.655377 23.817024 12.293728 141 130 110
-17.533961 24.020182 9.037399 213 203 178
-17.084212 23.980453 13.178511 110 100 82
-17.434312 23.892175 10.345693 197 185 160
-17.208186 23.554688 12.112956 163 150 129
-17.205325 23.645918 9.936538 211 197 170
-17.174090 23.434362 12.003883 160 149 129
-16.985534 23.645319 8.341824 220 208 182
-16.939728 23.292695 10.969635 183 172 149
-16.878055 23.546669 7.950735 222 213 192
-16.893523 23.269380 10.603065 198 187 163
-16.816420 23.077040 11.641093 152 137 114
-16.686302 23.595287 5.711000 199 183 154
-16.712876 23.036716 10.939080 154 143 121
-16.652788 23.030855 10.410703 174 162 140
-16.582829 22.974415 10.184476 192 176 150
-16.592810 22.963062 10.181424 192 176 150
-16.475484 22.939515 10.011963 198 181 154
-16.370831 23.035537 8.381428 202 191 169
-16.383172 22.798066 11.257970 144 129 111
-16.298195 23.043061 7.668310 226 215 190
-16.393831 22.777283 10.211853 180 167 142
-16.353523 22.801960 10.121171 200 184 158
-16.283560 23.053703 7.200353 211 201 179
-16.404233 22.536333 12.294571 124 116 98
-16.319114 22.627172 11.185399 148 133 113
-16.292141 22.483334 11.046732 166 151 130
-16.291935 22.483039 11.049193 166 151 130
-16.105749 22.683396 8.114903 208 192 166
-16.032872 22.385962 11.338093 193 178 157
-16.006440 22.350337 10.734657 205 189 160
-15.865777 22.347223 9.791034 198 186 160
-15.851761 22.172260 11.663932 179 164 142
-15.463931 22.177597 12.571780 121 110 96
-15.690557 22.071826 10.274416 175 160 134
-15.629047 22.339574 7.138978 174 159 133
-15.608653 22.177228 8.801882 213 199 173
-15.608182 22.179254 8.803698 191 179 155
-15.586691 21.878437 10.716182 169 154 134
-15.468183 22.086815 8.302250 216 202 175
-15.407260 21.734899 11.243528 161 147 123
-15.376360 21.853590 9.893926 198 182 156
-15.354028 22.066471 6.250421 222 209 185
-15.284498 21.871506 8.729981 191 177 151
-15.280025 21.779058 9.268812 206 192 166
-15.099912 21.699673 8.051388 216 202 175
-14.912487 21.268442 10.574235 182 167 143
-14.838754 21.237169 11.215536 165 150 129
-14.817807 21.562394 6.855472 208 195 168
-14.399103 21.344997 13.407704 175 167 150
-14.803640 21.427584 7.886775 217 205 181
-14.740803 21.160096 9.951467 187 172 147
-14.554470 21.082405 9.409439 177 162 138
-14.543741 20.930885 10.345632 168 153 134
-14.461600 21.016191 8.158557 182 169 145
-14.390983 20.973447 8.339371 201 187 161
-28.443557 12.232548 1.415402 189 193 194
-14.112692 20.593072 9.009121 219 204 180
-14.011547 20.479523 10.998136 188 172 146
-13.730076 20.288106 8.631219 222 210 186
-13.640583 20.044061 10.123853 199 183 156
-13.641292 20.043770 10.124207 199 183 156
-12.894203 19.609496 6.918960 204 189 163
-12.582947 19.168833 9.399675 197 183 158
-12.549780 19.332036 6.094337 199 184 158
-12.507495 18.810838 10.887489 180 164 139
-12.260201 18.839031 7.814370 218 203 181
-12.171575 18.402719 11.600501 169 154 133
-12.084648 18.705640 7.697081 229 216 196
-12.198289 18.543075 8.565828 212 197 174
-11.880875 18.384417 12.813405 176 164 147
-12.045180 18.307287 11.266554 167 150 128
-12.044755 18.307614 11.265809 167 150 128
-16.942423 16.231879 3.671628 155 144 126
-11.938315 18.289937 9.647998 196 182 155
-16.436595 16.238511 4.340727 184 169 145
-34.810790 7.055436 1.114011 219 223 222
-11.823811 17.901913 10.806303 181 165 140
-11.364883 17.666678 10.167499 185 168 145
-11.364381 17.666660 10.167118 185 168 145
-11.091506 17.647055 8.505463 200 184 159
-11.108787 17.101360 12.915063 140 125 104
-10.877381 17.511488 8.296835 211 195 168
-34.630931 6.734558 1.097720 210 214 216
-15.781153 14.937178 4.307257 174 161 142
-10.262236 16.516039 11.674568 175 160 141
-9.878260 16.111989 10.322353 164 149 130
-15.084073 14.225854 4.683490 202 190 170
-14.220095 13.080597 5.751947 202 187 164
-14.512104 13.071918 2.976835 162 154 140
-8.068783 14.581949 9.526934 208 192 164
-13.824192 12.724219 6.607048 191 176 152
-13.878004 12.735197 3.883607 176 160 135
-11.484507 11.596475 6.106283 49 41 35
-12.577432 11.378916 4.555532 130 122 112
-12.302717 11.076064 6.186546 95 83 72
-12.788710 11.078702 3.451015 167 157 140
-12.311597 10.923558 6.352978 207 192 167
-12.212463 10.671541 7.137637 202 189 164
-11.492260 10.045247 7.280380 178 164 143
-11.563422 10.023687 7.260629 183 168 147
-11.518312 9.877338 7.425778 183 168 147
-10.600738 8.695558 4.543028 209 194 172
-8.917092 7.835595 8.000972 79 66 56
-4.275542 7.772774 11.779131 163 150 130
-9.229338 7.305749 4.454422 190 177 159
-3.378295 6.883066 11.090457 154 142 122
-2.697312 6.150498 10.847615 163 150 129
-7.259215 5.171208 6.452640 221 210 194
-7.037927 4.892887 6.898291 202 194 176
-5.129999 3.411089 8.044258 196 180 155
-4.917824 3.222960 8.139822 173 157 132
-5.328582 3.160251 6.562608 199 191 172
-5.234845 3.224884 2.736259 176 168 156
-5.021732 2.854350 6.744355 215 206 189
-4.301138 2.403831 5.134830 226 213 195
-4.095380 2.029328 3.862791 216 200 176
-2.902045 0.940289 9.563738 168 154 139
-3.059506 0.966088 8.869411 219 204 179
-3.072070 0.996794 3.218067 167 155 139
-1.988378 0.010988 3.498715 147 134 118
-1.532184 -0.639495 6.416923 195 182 165
0.008203 -2.456500 7.310997 211 197 178
10.127623 -4.290966 10.622522 219 204 172
1.325131 -3.458566 3.889586 153 138 119
1.801831 -4.165279 6.934094 218 208 190
2.810318 -4.851653 3.313227 226 211 189
3.212577 -5.293647 7.688846 188 172 149
3.068142 -5.388475 5.301558 221 208 190
3.553770 -5.790243 7.614770 169 151 130
4.529935 -6.569084 7.650609 169 153 131
6.028914 -8.510296 5.694318 219 206 186
6.769201 -8.890606 8.089720 198 180 156
6.168629 -8.767235 5.859840 214 202 180
6.207843 -8.765765 5.868218 207 195 174
8.280957 -10.430378 4.906759 140 128 108
8.004266 -10.662714 6.120801 180 168 151
8.980554 -11.137715 8.318931 187 171 147
9.074789 -11.843051 7.267640 184 175 156
9.426889 -12.129189 7.439253 183 170 150
9.394017 -12.120985 7.430395 178 165 145
9.534408 -12.081408 3.236313 174 160 142
11.281184 -13.439985 8.267207 76 62 48
11.262448 -13.530294 3.183762 155 143 125
11.874096 -13.927781 5.128088 137 121 106
13.532268 -16.110133 5.797660 205 194 175
14.607746 -17.615718 9.574784 145 135 124
14.915156 -17.902866 7.772372 172 161 137
16.629756 -19.419531 5.170731 186 176 153
16.834103 -19.842979 8.397870 189 180 160
23.222870 -23.122034 11.172538 99 94 88
21.592945 -24.687042 8.584251 84 76 69
-12.845164 -18.475436 0.998370 183 188 191
-20.302803 27.162894 8.806292 184 171 147
-20.126978 26.782303 10.168461 172 159 135
-19.952557 26.820028 8.646216 189 177 155
-19.777347 26.974829 7.585369 200 189 171
-19.846522 26.790267 7.903780 197 181 156
-19.855391 26.725023 8.291193 192 180 156
-19.729787 26.589321 8.440518 186 174 153
-19.697828 26.432950 8.705924 175 159 134
-19.709299 26.420320 8.705309 191 180 158
-19.568601 26.147016 10.222333 141 128 105
-19.393965 26.213999 9.060042 208 197 172
-19.331754 26.283163 7.718615 196 188 168
-18.871075 25.412097 10.226738 156 144 122
-18.596929 25.345124 7.746301 184 172 147
-18.395030 24.993694 9.977137 188 173 143
-18.385450 25.001865 9.429818 172 158 132
-17.963053 24.577669 11.751459 156 141 120
-18.083654 24.770022 7.623368 196 183 156
-17.617477 25.111885 6.473136 160 148 129
-17.742737 24.135714 10.967444 189 173 149
-17.641529 24.565692 5.603475 197 183 157
-17.466026 24.130714 8.113912 212 201 173
-17.332434 23.713391 10.850718 178 163 134
-17.086452 23.699140 8.612094 208 198 175
-16.850736 23.181822 11.730076 153 142 123
-16.884929 23.545792 7.953760 222 212 189
-16.745988 23.299860 9.318126 204 190 164
-16.672748 23.159719 9.705606 201 186 158
-16.705229 23.174458 9.392682 200 185 157
-16.702899 23.471127 7.392408 218 210 188
-16.544395 22.901709 11.938871 134 121 104
-16.545824 22.899558 11.937934 134 121 104
-16.641883 22.937083 11.007287 167 156 133
-16.578379 23.007655 11.026069 158 146 125
-16.517852 22.907374 11.047593 158 147 125
-16.472785 22.845571 10.064271 194 178 150
-16.431782 23.005301 8.854725 210 198 173
-16.444272 22.896840 9.531666 185 171 145
-16.346406 22.771729 10.423410 177 163 137
-16.407298 23.293523 6.543680 184 172 150
-16.031671 22.387983 11.338666 193 178 157
-15.929647 22.270025 11.538212 160 147 124
-16.044690 22.713652 7.657265 217 206 178
-15.966367 22.519257 8.579632 214 200 173
-15.840864 22.771664 6.603439 218 208 184
-15.685206 22.026588 11.761868 162 148 126
-15.655320 22.003042 11.241558 178 164 139
-15.431547 21.779551 11.137286 187 175 150
-15.441976 22.086732 8.819154 179 167 144
-15.297108 21.599293 11.608306 163 150 133
-15.208794 21.733206 9.047500 192 177 152
-15.212446 21.728885 9.046418 192 177 152
-15.089700 21.302198 11.765045 151 138 119
-15.092288 21.697544 8.053166 204 191 165
-14.945975 21.458367 9.635106 192 176 153
-15.147229 21.786378 6.076177 210 198 174
-14.744727 21.345510 8.745618 188 174 148
-14.729969 21.128066 10.058762 178 162 138
-14.701898 21.371139 8.237087 198 182 156
-14.732551 21.250155 8.816449 191 177 151
-14.743719 21.236001 8.812647 191 177 151
-14.565408 20.814384 10.830388 174 159 139
-14.463394 20.975411 8.584311 196 181 152
-14.111987 20.416015 12.394923 147 134 116
-14.194933 20.518683 10.139213 208 192 167
-14.106887 20.545387 9.418233 185 169 147
-14.047369 20.491763 9.143011 197 181 154
-14.006537 20.393356 9.994718 208 193 168
-14.045067 20.587741 8.206863 209 197 176
-13.883489 20.375827 8.654601 212 200 178
-14.068833 20.365870 5.294640 215 202 176
-13.636001 20.202811 8.143611 212 200 178
-13.531801 19.989443 8.735283 215 201 175
-12.934225 19.611987 13.006770 141 128 110
-13.254021 19.458364 11.669049 157 145 125
-12.986591 19.326596 10.391383 177 161 137
-12.990900 19.319029 10.389372 179 165 140
-13.026031 19.456113 8.836555 205 190 165
-12.727112 19.303834 7.288954 186 170 146
-12.451342 18.726927 11.209112 164 150 128
-12.564963 19.093536 7.590191 201 185 159
-12.309387 18.851730 8.007652 218 203 180
-9.745722 19.236283 13.925256 158 144 122
-11.680217 18.211209 7.932185 223 210 189
-11.678798 18.212081 7.931741 223 210 189
-11.469611 17.972952 7.919102 220 208 185
-11.128462 16.966215 13.186138 144 129 111
-11.066328 16.750581 11.795331 124 111 94
-10.710129 17.230813 7.904690 186 170 145
-15.741149 14.593194 5.351349 204 192 174
-9.946714 16.257690 8.874543 184 167 142
-15.152493 13.968472 4.136989 183 168 144
-13.659933 12.909984 6.358014 203 190 167
-13.347224 12.906639 7.282063 155 141 120
-8.029547 14.067343 12.707816 135 123 103
-7.268280 13.578883 9.764500 147 132 112
-12.531717 10.767642 3.424967 193 182 164
-11.913289 10.007137 5.328522 224 213 191
-11.529670 9.658946 6.363320 198 184 165
-4.629431 10.499724 10.951665 149 132 107
-11.005150 9.216004 7.502020 188 172 149
-4.509708 10.040522 8.613794 148 132 113
-9.790531 7.800395 6.249368 219 209 192
-5.282009 7.478591 9.612815 175 159 139
-8.298380 6.315590 4.626193 208 198 178
-8.310256 6.312891 4.623174 208 198 178
-7.917923 5.894925 5.605675 214 204 186
-7.238714 5.265383 4.905763 201 186 165
-2.780186 3.649841 10.417497 69 60 53
-5.960967 3.774917 6.926800 206 200 184
-5.184946 3.529750 8.430341 195 179 154
-5.813281 3.666980 6.624816 172 163 148
-5.294803 3.029036 7.261128 220 210 192
-5.216377 3.206516 4.021253 226 216 196
-4.782175 2.520801 6.604849 205 193 175
-3.798803 1.971258 7.512918 193 177 155
-4.132672 2.005585 5.534308 207 198 176
-2.763042 1.018221 7.057096 145 130 112
-2.343815 0.968363 6.804843 142 129 113
-2.561722 0.807067 7.420549 188 171 150
0.364867 0.041733 10.778312 73 64 54
5.176273 -0.992825 12.210264 143 130 114
-1.478461 -0.615467 9.083738 202 186 160
-1.891985 -0.201156 4.732410 174 161 144
-1.296005 -0.213357 3.163849 163 152 136
-1.470393 -0.793120 2.743418 170 157 142
-0.559576 -1.669346 5.050500 216 204 186
-0.292188 -1.903673 4.879303 190 180 170
-0.115840 -1.887333 4.059026 214 200 179
0.199728 -2.257525 5.469651 71 61 55
0.556447 -2.711004 8.892815 186 170 148
8.611888 -4.039048 13.214471 130 118 103
2.562930 -2.760496 3.793423 118 114 109
1.457901 -3.439218 5.375116 132 122 105
1.381899 -3.385353 4.410558 136 124 106
1.313538 -3.589465 4.221668 139 127 108
1.222425 -3.622706 4.182872 207 195 174
2.670079 -4.437484 8.110584 207 190 163
2.071250 -4.407648 7.115589 213 204 185
3.270817 -5.534451 4.213473 229 215 194
37.285976 -12.850711 19.247145 60 59 53
4.568081 -7.096310 4.411870 205 194 173
5.552102 -8.141998 6.186139 203 194 177
8.611701 -10.777745 8.155716 182 167 142
12.267541 -14.030764 5.151522 131 117 105
11.973207 -14.443989 9.127070 136 125 114
11.978244 -14.444152 3.699728 210 198 172
15.808110 -18.317431 5.019467 143 129 107
18.642139 -20.780138 3.386796 202 193 175
17.843671 -20.907087 8.244773 100 91 80
17.885300 -20.920810 8.246005 100 91 80
18.229798 -21.481052 8.291797 187 179 160
25.387104 -29.134759 4.490757 129 123 108
44.010778 -54.862172 2.606413 182 188 189
-21.899975 28.839573 10.290505 153 141 118
-21.881769 28.745174 10.484406 140 127 109
-21.746898 29.261147 6.510281 176 165 143
-21.769289 29.138161 6.730000 184 173 151
-21.057982 27.761868 9.791151 173 158 133
-20.933529 27.660696 9.423473 157 140 120
-20.802869 27.912005 6.469830 181 166 150
-20.216953 26.960738 10.308558 171 157 132
-20.074873 27.208113 9.219406 194 179 158
-20.158572 26.962437 9.258202 183 171 149
-20.022443 26.819760 8.376694 187 175 151
-19.895882 26.683385 9.624602 174 163 142
-19.929608 26.558526 9.968980 162 146 120
-19.612920 26.162142 10.351251 163 148 127
-19.164470 25.778536 10.232957 173 156 127
-19.063898 26.067216 7.453279 205 196 177
-19.051454 25.640451 8.828852 201 187 161
-18.936858 25.190068 12.575609 136 124 107
-18.990006 25.150380 11.981023 156 143 122
-18.228133 25.629135 13.604610 177 175 165
-18.742385 25.258563 10.227902 185 172 151
-18.430920 24.776263 11.469669 130 116 94
-18.309162 24.667736 11.338149 164 148 125
-18.236142 24.978014 7.630497 187 174 150
-17.164193 23.729036 8.719436 206 193 166
-17.142502 23.341929 10.409935 189 175 149
-16.876275 23.611946 8.156148 225 213 189
-16.689234 23.180098 9.397644 200 188 162
-16.654834 22.894147 11.889851 132 120 102
-16.736453 22.834300 11.740522 131 118 98
-16.683150 23.602170 5.704457 202 186 160
-16.570015 22.729220 11.926067 138 126 108
-15.576193 22.455569 6.258687 178 166 144
-15.370360 22.430734 5.284966 191 177 151
-15.271791 21.779924 9.514185 187 171 145
-15.130790 21.749799 8.360762 216 201 175
-15.203348 21.155023 11.382997 147 135 113
-14.896555 21.403553 9.617530 179 167 141
-14.811724 20.960591 12.011800 151 138 119
-14.601424 21.751632 6.459423 125 110 88
-14.743770 21.273896 8.539418 204 189 164
-14.440377 21.312557 6.309646 216 203 180
-14.412656 20.679896 11.341572 160 147 129
-13.959439 20.700592 6.198124 208 196 174
-13.631844 19.851815 11.773176 174 161 139
-12.971737 18.812876 13.096274 170 159 138
-12.776455 19.178693 10.185845 180 164 141
-13.117740 19.367581 4.644183 144 129 109
-12.689918 19.197979 8.501481 207 192 168
-12.477027 18.708151 11.418260 166 151 126
-12.456839 19.002837 7.826737 209 193 165
-11.682773 18.188868 8.391426 214 199 176
-11.668416 18.207471 8.392360 214 199 176
-16.231320 14.773029 5.114078 178 164 141
-8.603385 14.450470 7.378002 207 192 166
-8.194004 14.547217 6.886230 211 198 176
-8.349928 14.304609 7.422182 192 176 150
-12.453058 11.469597 5.102333 75 67 62
-12.530741 11.169776 4.699209 137 129 116
-6.226430 11.553454 10.728594 184 168 143
-11.823177 10.240084 4.302051 209 196 174
-11.760353 9.660920 5.899637 240 226 204
-4.708664 10.877798 11.384676 145 130 110
-10.905032 8.989960 6.248531 203 190 170
-10.468314 8.740589 5.018636 206 196 177
-10.123448 8.060886 4.287598 156 145 127
-9.230032 7.656748 7.495510 159 143 124
-5.951131 8.059999 9.557887 234 220 201
-5.844101 4.261514 8.194746 149 134 114
-5.934928 3.696082 4.708623 207 194 177
-5.497371 3.343843 6.508000 197 189 173
-4.898745 2.869247 3.991475 225 216 195
-4.386085 2.557089 7.867632 188 174 153
-3.846856 1.871699 7.988974 195 180 157
-4.072863 2.033214 3.867035 202 183 160
-3.400484 1.565686 9.115384 184 168 146
-3.538779 1.494571 3.262735 166 154 135
-3.542029 1.493587 3.259228 170 158 139
-3.418093 1.336730 4.526706 204 194 177
-3.252409 1.036937 4.377744 156 145 128
-2.615968 0.751012 9.131058 196 181 158
-2.711385 0.871021 7.063172 192 176 153
-2.942189 0.839807 4.066351 166 154 138
-2.377630 0.488096 8.845036 188 170 147
-2.685632 0.571725 3.562620 189 177 159
-2.235012 0.292717 7.941958 205 189 165
-1.788555 0.107361 5.135423 117 107 98
-1.208318 -1.000846 9.494368 168 151 129
-1.274290 -1.118388 6.944709 228 219 201
-0.887833 -1.337254 4.851755 225 212 195
-28.014385 0.109503 1.034787 203 207 208
0.900224 -2.905524 8.932431 166 150 126
1.162618 -3.378385 8.961985 176 159 134
1.422897 -3.510638 7.365944 221 209 188
1.264567 -3.479821 5.452015 145 134 115
2.250916 -4.710329 6.488853 237 226 209
2.463787 -4.888735 5.666217 237 224 205
-25.582040 -1.094608 1.108248 180 184 187
12.915595 -9.490293 10.064581 172 155 128
-3.507176 -6.237347 2.422140 207 207 204
5.801140 -8.434504 6.547753 237 230 214
-25.550819 -2.299603 1.044968 211 215 217
7.122836 -9.628711 3.904725 185 172 150
7.920335 -10.629775 8.076885 182 167 142
8.708802 -10.970459 7.886386 184 167 141
8.765091 -10.972646 7.892902 178 164 139
9.711824 -11.840815 8.787479 159 146 125
9.354009 -12.074065 6.332074 199 190 167
15.594726 -17.238829 8.890378 149 136 117
14.165366 -16.850201 9.803630 162 149 130
14.992968 -17.389608 8.637571 106 97 80
22.860558 -20.322745 11.235944 100 90 85
-22.323492 -5.220964 1.074483 194 199 202
15.097130 -18.335810 6.204064 207 195 164
-26.750310 -4.718020 0.807239 183 188 193
25.749421 -27.807420 10.995141 117 106 93
25.264988 -27.854436 10.078681 107 95 81
11.321168 -24.785222 2.148797 200 204 204
-12.287209 -13.266935 1.268260 160 165 171
32.054767 -38.973691 6.821257 232 233 227
-1.527207 -20.828738 1.320362 180 188 190
-21.305460 28.100520 9.576638 138 125 106
-21.067119 27.734517 9.687522 177 161 136
-20.821003 27.955947 11.389713 132 117 96
-20.981249 27.742878 10.410343 175 159 135
-19.682345 26.627262 8.568551 175 163 141
-19.668694 26.693640 7.397545 200 190 165
-19.727410 26.575670 7.747579 208 197 173
-19.356299 26.227435 7.709631 196 188 168
-19.325730 26.005807 8.877261 202 190 164
-19.440501 25.191198 11.577271 153 137 116
-18.620932 25.118985 9.436951 170 157 131
-18.466571 25.019144 9.916147 175 163 139
-17.963089 24.221283 10.676777 187 171 146
-17.580656 23.733286 12.137919 122 110 92
-17.182603 23.827939 8.009390 214 202 176
-17.262754 23.630557 10.574762 199 184 161
-16.851624 23.579107 7.954134 222 213 192
-16.439412 23.148776 7.479394 225 214 190
-16.251563 23.180793 8.052607 209 196 171
-16.388521 22.790284 10.980784 126 113 93
-16.315698 22.625490 11.191596 147 133 115
-16.121622 22.617955 9.417402 193 177 152
-16.013211 22.431780 10.712542 197 183 157
-15.789892 22.609658 5.966585 179 164 140
-15.709908 21.933810 11.450035 182 167 143
-15.236189 21.843818 8.880055 192 177 152
-15.173970 21.992508 6.028264 196 183 165
-14.968825 21.777300 7.639031 222 209 185
-14.782949 21.389555 8.282654 201 187 160
-14.786417 21.237139 10.855433 170 156 135
-14.630145 21.521622 7.290310 230 217 191
-14.671249 21.423741 8.769103 190 174 148
-14.463053 20.740378 10.815301 154 139 120
-13.915186 20.418008 9.213797 228 215 192
-13.676946 20.396128 8.028376 212 200 180
-13.255540 19.835429 8.245555 213 198 174
-11.838309 18.949595 7.727828 226 211 189
-11.922333 18.670851 8.315662 224 209 186
-12.367143 18.083914 8.289838 213 198 175
-11.243434 18.089986 12.043084 142 127 109
-11.396082 17.881486 9.534563 173 156 130
-11.249740 17.895012 8.005324 204 189 166
-11.280968 17.730385 9.080833 214 199 176
-9.733406 15.974236 12.942024 203 190 170
-14.309038 12.974366 3.445887 211 202 182
-8.607778 15.440183 8.807139 178 162 138
-13.741216 12.545507 4.909388 202 187 164
-9.115461 14.249011 6.967909 209 194 168
-7.495391 13.909120 12.504893 147 131 111
-7.077405 13.307693 10.446390 161 144 123
-7.190951 12.104158 9.659387 171 156 133
-5.182297 12.001003 10.280630 145 129 107
-9.374758 7.347404 3.226719 198 188 170
-9.329066 7.120832 6.328706 208 201 184
-8.129528 6.227635 5.128094 205 191 170
-7.593688 5.929819 7.931961 196 180 156
-7.203952 5.770387 8.333565 189 173 148
-7.562802 5.462443 5.791635 210 198 178
-1.896721 5.357262 8.539311 159 147 129
-6.384128 4.722731 5.700948 152 141 126
-0.992467 5.157734 10.805177 159 146 127
-6.013772 3.897799 5.653341 207 196 178
-5.969528 3.916067 5.326061 227 215 197
-5.174506 3.430633 8.974173 135 120 106
-5.511341 3.421873 5.763037 196 185 167
-2.932494 2.978376 9.923781 67 60 54
-3.142235 2.945877 9.882423 67 60 54
-4.663689 2.910884 4.755788 205 191 170
-4.486581 2.307483 7.282883 198 187 171
-4.361003 2.317816 7.306139 187 175 155
-3.781876 2.157753 9.054632 147 131 116
-3.837472 2.123361 7.209189 177 162 138
-3.968119 1.948124 7.781696 202 187 164
-3.776499 1.418296 5.306654 177 169 154
-2.635046 0.803457 8.988584 207 192 169
-2.584631 0.756708 9.139913 196 181 158
-1.529907 0.139824 6.182478 148 136 119
-2.278487 0.201976 4.550615 177 165 149
-1.954000 0.061833 2.964380 141 131 118
-1.693418 -0.297528 8.037742 198 181 157
-1.517634 -0.351754 6.064249 191 175 150
-1.013490 -0.943571 8.759948 214 198 172
-0.499035 -1.621412 9.060337 193 177 152
0.255235 -2.255257 9.023567 200 184 160
0.225553 -2.259683 9.023036 200 184 160
0.602667 -2.160009 5.669774 71 61 55
8.897190 -3.348119 12.970342 129 120 106
1.372399 -2.880141 7.961409 152 133 113
12.626810 -4.404313 14.372386 130 118 103
2.472516 -4.637115 8.476374 184 169 144
3.346980 -5.485722 8.867570 188 172 148
3.469276 -5.674735 5.326788 221 210 191
4.516282 -6.505112 6.011283 90 79 69
5.067517 -7.244780 8.625937 169 151 132
5.092203 -7.520701 4.671809 215 203 182
5.824845 -7.870603 9.083783 190 173 146
17.860697 -12.173837 13.860166 137 131 126
8.221333 -10.425597 4.904606 140 128 108
8.886015 -11.538347 5.369704 205 194 174
9.599243 -12.528222 6.753024 195 187 168
9.286404 -12.766436 6.087428 193 184 165
11.613923 -13.818256 8.376980 154 139 117
11.094738 -14.175797 7.140112 195 184 160
12.712440 -14.897991 9.050080 129 118 105
12.077711 -14.844724 6.193977 218 206 187
12.099710 -14.858030 6.483603 203 193 173
13.175165 -15.740123 8.194651 199 184 157
13.084105 -15.813123 5.424250 203 193 168
14.154932 -16.966678 9.411517 166 153 135
15.309592 -18.139015 4.736822 116 104 86
15.282572 -18.153900 4.331372 165 159 125
15.838475 -19.080030 5.887029 209 201 179
16.477118 -19.717021 9.441408 180 171 160
17.195036 -20.181949 7.573777 196 188 170
23.446743 -26.366227 6.930075 179 170 153
24.871131 -27.684496 9.788449 107 95 81
25.634759 -30.706530 8.926680 204 201 190
53.704648 -52.787305 8.518468 119 120 120
-21.077530 28.326998 6.502638 174 165 140
-20.193818 27.295017 8.931832 187 175 151
-19.067520 25.531676 10.194783 163 149 126
-19.009863 25.816791 6.581121 220 207 185
-17.733240 25.330823 6.303267 173 158 141
-17.279331 23.700682 11.001836 170 158 136
-17.315690 23.619140 11.000773 172 158 133
-17.118729 23.616288 9.835677 194 180 153
-16.724371 22.960352 11.924682 140 129 111
-15.765273 22.200292 10.220312 204 192 166
-15.676364 22.226946 9.791800 193 179 155
-15.683739 22.291354 6.996115 191 179 155
-15.316149 22.406853 6.311918 185 170 147
-15.152753 22.137204 13.255386 146 134 116
-15.377387 21.752846 9.776722 197 182 157
-15.299259 21.729447 10.509705 163 150 126
-14.974910 21.507856 12.498705 82 73 65
-15.003206 21.567755 8.403575 203 189 161
-14.976340 21.529012 9.727488 192 176 153
-14.900514 21.538675 8.290121 203 189 163
-14.756154 21.259099 9.795841 162 150 125
-14.713174 21.201746 9.480337 195 181 155
-14.716273 21.198739 9.477555 195 181 155
-14.369947 21.083387 6.541187 144 132 112
-14.160427 20.609376 9.756936 188 172 147
-14.037003 20.516046 9.149069 216 202 180
-13.647629 19.861006 11.768691 167 151 125
-13.113179 19.783016 7.809366 205 190 164
-13.089785 19.864763 6.596655 217 204 179
-12.815730 19.654538 6.087507 209 194 169
-12.886014 19.411654 8.388301 202 190 167
-11.648682 17.940236 12.288087 158 144 125
-12.126614 17.071963 12.485569 181 168 146
-15.097335 13.472247 3.673907 220 207 186
-9.773707 16.317836 9.325771 172 156 132
-14.420134 13.117162 3.426299 206 194 172
-13.840031 12.494011 5.383674 210 198 176
-7.096312 13.713041 12.863492 59 46 33
-11.109327 9.289175 4.309560 194 181 160
-10.494313 8.602789 5.595936 210 198 179
-8.734610 7.542276 7.476514 187 172 149
11.155474 9.112517 20.233026 58 107 154
-5.985896 3.908936 5.499033 226 216 198
-5.438233 3.689385 8.230631 188 172 147
-4.988014 2.913055 4.456996 226 213 193
-3.973730 1.926315 3.297047 196 184 163
-3.789160 1.754796 3.593505 192 180 158
-1.114383 1.340669 5.194165 182 173 163
-2.370916 0.491888 8.847633 188 170 147
-2.681705 0.576007 3.415163 173 162 145
-2.682444 0.576099 3.414153 173 162 145
-2.297780 0.386277 8.519933 200 184 158
-2.786733 0.464083 4.310835 176 165 145
-2.077335 0.091563 8.757889 201 185 160
-1.901874 -0.190029 7.020849 183 167 145
-1.576832 -0.487058 5.666587 191 176 151
-0.868407 -1.312016 3.362053 218 206 188
0.697735 -2.202318 3.837925 103 96 90
0.555892 -2.593650 8.924463 189 172 148
0.823828 -2.845740 9.081377 194 177 150
1.479914 -3.206853 5.584002 114 103 91
-31.880613 -1.640904 1.075102 150 155 158
1.708480 -4.170617 7.379444 220 208 189
2.193807 -4.585161 5.665174 213 198 179
4.867899 -6.743710 7.781398 136 119 100
4.582195 -7.016531 4.299388 222 210 187
5.154580 -7.686548 5.420687 200 188 169
5.613903 -7.946683 8.603204 192 176 151
5.276849 -7.953334 7.175047 215 209 187
5.848073 -8.405371 5.414411 209 196 177
6.877204 -9.163744 7.833973 190 173 148
14.994854 -10.753081 10.158546 166 148 124
8.179742 -10.251551 4.958122 137 124 107
6.034732 -9.897203 3.333567 135 126 111
8.700369 -11.302979 4.603651 211 200 180
8.777193 -11.362916 5.479483 202 192 167
9.399655 -12.112153 6.968684 195 187 168
9.912999 -12.375151 7.680026 178 165 145
9.970859 -12.386345 7.695776 178 165 145
9.549920 -12.304295 6.905373 187 176 158
9.678675 -12.370872 5.136208 198 186 164
9.651718 -12.372116 5.134420 203 191 166
15.191926 -14.029832 10.144190 147 135 115
14.438547 -13.949584 11.198399 126 119 107
10.613861 -13.511564 3.497764 160 148 128
11.537945 -14.475979 6.818661 201 190 166
11.593825 -14.489984 6.828101 203 193 165
12.107837 -14.839250 4.927235 200 190 165
14.304730 -16.255669 7.200551 191 177 156
13.464834 -16.233778 6.712261 169 157 141
15.321122 -17.075337 6.020513 142 131 123
15.401326 -18.258781 7.953093 184 172 149
-8.790853 -10.651352 1.663199 199 205 205
22.841263 -27.502936 8.538231 142 131 113
24.720857 -28.529221 3.891074 122 116 103
22.579921 -28.614285 4.814115 131 123 103
27.564445 -33.977037 6.899232 233 234 229
-20.827818 28.483193 6.388001 109 99 82
-20.013426 27.845017 6.325282 148 139 124
-20.155573 27.174381 8.598823 189 176 152
-19.565259 26.003210 11.730005 149 138 120
-19.311274 25.472480 9.274480 197 185 159
-18.846929 25.893093 6.560376 207 195 172
-18.880292 25.478527 9.460988 198 186 161
-18.241678 24.345137 12.035875 120 111 96
-18.237941 24.616535 7.686229 189 177 152
-17.671145 25.424812 6.313413 169 157 136
-17.673611 24.049007 11.303154 151 136 115
-17.330266 23.598205 11.854820 144 133 113
-16.954535 23.448427 7.934669 223 213 189
-16.585910 23.015811 7.704289 218 207 185
-16.304673 22.911371 8.126111 216 204 180
-16.341574 22.863224 8.115867 216 204 180
-16.173684 22.720632 8.311939 189 177 153
-16.111226 22.786985 7.461542 216 204 180
-15.882530 22.283981 10.714185 189 175 148
-15.789987 22.356276 8.856201 196 185 162
-15.665793 22.049635 11.774473 162 148 126
-15.591445 22.083768 10.806188 151 135 110
-15.284448 21.220012 13.039227 137 125 104
-15.122907 21.412682 10.606672 168 153 133
-14.989219 21.428147 10.248857 195 180 153
-14.288868 20.844631 10.163708 180 165 143
-14.314072 20.810857 8.569032 201 186 158
-14.309651 20.573472 11.688833 156 144 127
-14.044669 20.542001 8.894774 202 190 168
-14.043641 20.545280 8.895118 202 190 168
-16.328223 18.864655 3.563448 151 143 130
-13.942178 20.505653 9.846201 187 173 148
-13.512983 19.894952 11.554943 181 165 140
-13.451258 20.065453 7.709525 232 219 197
-12.988396 19.558747 8.580005 200 185 162
-12.941709 19.551334 7.844372 226 210 184
-12.286419 18.705988 11.617902 153 138 116
-10.719584 16.696819 13.783408 145 123 99
-8.347258 15.722281 9.555811 185 169 144
-11.342996 12.208787 5.316354 44 38 35
-7.061717 10.650783 9.000739 150 134 111
-4.943394 11.169985 11.248732 145 129 107
-9.629303 9.401072 7.698709 175 160 140
-3.344158 9.863627 13.062434 247 244 238
-5.602729 7.522526 9.591300 176 161 138
-7.618604 5.856584 8.059629 181 165 141
-6.303353 4.046919 7.280045 167 153 133
-1.213964 4.546665 11.058455 70 59 50
-5.221014 3.631280 7.625192 188 174 153
-5.528780 3.371845 6.226489 211 203 185
-5.477889 3.349788 6.263120 199 190 175
-5.135565 2.982066 6.339526 205 197 177
-4.476468 2.311973 7.282236 198 187 171
-4.204034 2.127929 3.741575 209 191 168
-2.137030 1.682528 7.927661 212 198 177
-3.474655 1.444832 3.770792 178 167 147
-3.455344 1.332000 4.528957 190 180 163
-2.548281 1.153260 6.985243 145 130 112
-2.504743 0.817593 9.011776 196 181 158
5.004864 1.016189 12.615718 142 127 108
-1.942289 -0.059056 7.082805 224 209 188
-1.845900 -0.019321 4.854043 165 153 134
-1.591677 -0.346968 9.448810 193 176 153
-1.930696 -0.228677 3.061062 178 165 147
0.390685 -2.296277 6.743430 154 137 122
1.317826 -2.877218 7.950577 143 125 102
1.484363 -3.198464 5.737793 129 118 104
2.151645 -4.162896 8.519084 172 156 133
2.683441 -4.477239 8.025523 207 190 163
3.031902 -5.070002 7.919490 211 194 166
3.074874 -5.152253 7.784941 192 175 149
3.075089 -5.149991 7.785003 192 175 149
3.932922 -5.839408 7.709612 175 158 133
5.838830 -8.443092 4.194685 233 221 201
7.229578 -9.947865 7.449154 169 155 135
7.668441 -10.217555 4.149588 142 131 114
8.317743 -10.565886 3.769315 189 177 156
8.443191 -11.191480 5.843799 211 203 184
9.015069 -11.702675 5.953505 196 187 166
9.016966 -11.701886 5.953156 202 191 172
9.275134 -11.946087 6.443879 189 181 161
9.865401 -12.616399 6.614639 213 206 188
10.055658 -12.795696 5.004022 210 199 173
10.798783 -13.676579 5.055505 113 100 90
11.464753 -14.140180 6.217537 151 138 116
12.058753 -14.996512 6.291542 200 190 167
13.810696 -16.327286 9.688091 161 149 129
15.271763 -17.373051 8.202847 114 102 87
15.191419 -17.939604 5.100928 143 129 107
15.664410 -18.667745 9.115013 174 166 147
16.358976 -19.250234 5.907017 204 194 173
16.774541 -19.510447 4.941278 186 176 153
18.111706 -20.787104 5.035685 132 119 105
20.956891 -24.099860 6.909596 186 178 158
24.068974 -26.396112 8.935807 129 122 106
24.890911 -27.265224 9.572399 124 112 96
7.248566 -22.007087 1.886611 192 196 195
-18.829830 25.300928 10.414901 191 179 157
-18.205008 24.700476 12.214837 97 88 73
-17.987388 24.476927 10.823318 167 154 132
-17.917240 24.568327 8.145085 212 202 176
-17.216595 23.842578 8.204381 210 198 172
-16.861489 23.560662 11.032843 181 169 146
-16.795162 23.242644 9.378313 200 189 161
-16.569687 23.246966 8.128572 218 207 185
-16.463284 23.108158 7.477624 225 214 190
-16.325258 22.945519 8.628149 182 170 147
-16.416580 22.831153 8.605542 182 170 147
-16.243966 22.653729 10.551955 184 170 144
-16.144198 22.551421 10.047376 209 196 170
-15.768634 22.270422 11.505234 185 171 145
-15.662059 22.100195 10.981969 168 153 131
-15.648739 22.118565 10.999273 168 153 131
-15.643398 22.221620 9.131999 178 163 140
-15.537321 21.976838 10.772848 169 154 134
-15.472342 21.742720 11.308726 175 163 141
-15.186805 21.534165 12.334432 132 121 109
-15.078591 21.435589 10.955056 166 151 131
-14.909529 21.404660 9.964231 204 190 164
-14.956240 21.606632 5.944035 211 200 179
-14.903392 21.466006 6.839191 208 195 168
-14.497963 21.005361 10.789356 158 146 125
-14.684866 21.201435 6.262438 214 202 179
-14.360088 20.912001 7.968278 201 186 161
-14.314300 20.998735 6.347441 167 155 133
-13.993013 20.712649 7.073251 195 181 162
-14.326892 19.948705 4.969527 197 183 157
-12.320791 18.695004 12.888180 133 120 100
-16.598428 15.748243 3.883548 148 139 123
-12.283517 18.821408 7.817519 210 195 174
-11.652328 17.892394 11.640040 144 131 113
-11.231024 17.620305 11.234506 157 144 124
-10.991824 17.579521 8.348709 200 185 159
-9.803482 17.655371 13.334970 104 93 79
-10.615194 16.925386 10.948228 143 130 112
-13.968715 12.607561 6.314740 186 171 149
-8.710214 15.359458 6.866202 189 173 148
-6.140892 12.727871 9.808800 194 177 153
-10.940483 8.947184 7.027189 218 211 196
-10.461965 8.522725 3.689544 216 204 181
-6.266702 7.745483 9.768135 173 155 134
-6.144749 7.351818 10.442603 143 128 106
-3.915308 7.423390 11.848241 154 141 121
-8.454508 6.439005 2.879738 200 192 174
-7.595264 5.878033 8.063410 191 176 151
-6.740294 4.979040 8.627596 165 148 126
-6.673405 4.862879 7.444446 159 144 128
-6.364879 4.371946 3.964798 182 169 150
-5.855847 3.726739 5.944735 191 180 161
-5.093872 3.483686 7.596611 177 162 144
-5.108914 3.483668 7.589347 189 175 152
-5.359129 3.286927 5.105652 193 182 163
-5.363178 3.284068 5.105368 193 182 163
-5.288134 3.243896 4.466973 196 189 170
-4.499767 3.019156 8.948647 181 164 145
-4.881183 2.738445 3.902010 231 217 196
-4.595085 2.534779 3.967021 212 190 167
-4.309392 2.257067 7.576633 200 185 164
-4.424429 2.227142 7.556347 200 185 164
-4.487993 2.475388 3.620971 225 208 182
-3.975915 1.924327 3.299807 206 193 174
-3.447000 1.595514 5.666031 196 187 171
-3.699424 1.347408 4.899489 190 181 168
-2.012731 0.183020 9.197157 192 175 150
-1.952884 0.103383 8.780276 201 185 160
-2.142267 0.028369 3.589047 132 125 110
-2.147579 0.035299 3.294720 154 143 126
-1.764093 -0.440073 6.632771 131 118 100
-1.880689 -0.291620 4.226151 173 162 145
-1.566059 -0.633259 4.463481 218 209 191
-0.862180 -1.213999 9.389916 168 151 129
-0.490686 -1.533117 8.880163 196 179 154
-0.129620 -1.858934 9.081782 184 167 142
-0.379496 -1.791872 2.987880 144 133 117
0.759488 -2.713113 8.939798 189 172 148
1.471647 -3.882738 7.146531 191 178 158
1.735029 -4.003606 6.660239 218 208 190
1.791685 -4.268328 6.485141 230 222 202
5.189106 -7.766511 6.174269 189 178 160
8.403179 -10.276482 5.141454 121 106 93
8.198188 -10.376526 5.544636 144 129 112
8.723791 -11.135753 8.116684 186 172 145
8.368479 -11.056149 6.280776 203 195 178
8.483686 -11.288730 7.308161 178 170 153
9.610220 -12.290407 5.702612 217 206 186
9.872371 -12.603402 7.294821 196 188 169
10.287136 -13.179122 6.458254 198 191 173
11.486121 -14.282698 4.350755 204 190 163
15.531930 -17.149678 7.206433 102 92 82
16.020173 -18.034916 6.548213 89 77 64
16.069502 -19.196373 8.342351 196 186 162
32.283871 -32.987989 11.236971 138 152 172
-18.316142 24.539473 10.646733 152 139 121
-18.319960 24.517596 10.645199 151 140 119
-16.832064 23.149979 11.364310 143 130 113
-16.838740 23.132258 11.360493 143 130 113
-16.070397 23.207975 6.617330 215 203 180
-15.860835 22.309761 9.908629 198 186 160
-15.826170 22.373016 8.968674 180 169 147
-15.572185 22.191185 10.908519 175 161 140
-15.577620 21.878057 12.146275 145 133 117
-15.318603 22.204502 9.068517 191 179 155
-14.806473 21.146320 11.031049 149 136 117
-14.134149 20.605032 9.681305 188 172 147
-11.745624 13.893559 6.558603 205 189 164
-1.061772 10.804347 13.018861 73 62 52
-8.864426 6.328816 5.745820 226 215 197
-7.624913 5.192741 5.451499 210 196 173
-5.870767 4.187423 5.304702 89 81 72
-5.357772 3.850476 8.683490 207 189 163
-5.614143 3.792323 7.789699 197 181 158
-5.749411 3.706299 4.448664 221 209 192
-5.244183 3.620771 7.620507 188 174 153
-4.947125 3.199820 7.999401 193 177 151
-5.537434 3.132892 5.833589 205 193 175
-3.892325 2.064814 8.524688 165 149 126
-4.028715 1.931531 2.876767 207 197 180
-3.312785 1.759408 6.057076 178 164 145
-3.486591 1.557669 8.038877 194 177 153
-3.489600 1.556283 8.037960 194 177 153
-3.632480 1.412324 5.325214 210 204 190
-3.523854 1.224810 4.727276 197 187 173
-1.972774 0.969589 4.790639 169 158 144
-2.106893 0.504217 4.779707 168 156 140
-2.194890 0.394774 6.738086 203 191 171
-2.185597 -0.012801 4.495615 191 182 166
-1.596097 -0.402556 6.001184 184 168 148
-1.614870 -0.405602 5.999290 184 168 148
-1.527843 -0.622499 3.580486 176 163 144
-1.491173 -0.798010 6.602765 212 202 184
-0.622825 -1.535932 3.319196 183 173 155
-0.022687 -2.017428 8.859275 179 162 137
0.010847 -2.062034 9.089136 202 186 165
1.078213 -2.864930 7.214210 210 199 182
1.502753 -3.315391 6.980990 156 141 121
0.839096 -3.514419 6.092837 118 107 93
2.107863 -4.077597 8.210793 195 178 150
1.779305 -3.993719 6.669828 218 208 190
2.678762 -4.660603 8.267536 184 169 144
2.772039 -5.183600 4.950578 222 211 193
3.076640 -5.300450 3.966697 226 214 193
3.630606 -5.959384 4.163183 178 165 145
4.764422 -7.135615 3.668534 222 210 187
5.090079 -7.650462 6.039109 215 205 187
5.629652 -7.747567 4.948573 216 205 185
5.779797 -7.996586 7.722690 200 184 160
5.778325 -7.996650 7.722788 200 184 160
7.277464 -9.496023 7.731076 139 123 105
7.931853 -10.452662 6.434175 147 136 118
7.866055 -10.512521 6.786019 165 155 136
7.955184 -10.515520 6.778831 165 155 136
8.783782 -11.217310 5.361629 206 195 175
8.907044 -11.228695 5.366717 206 195 175
8.882290 -11.557627 5.737585 220 212 193
8.903334 -11.600378 6.150035 199 190 173
9.201241 -11.720148 5.976697 191 180 160
9.468274 -11.885275 7.792380 175 164 141
9.464806 -11.885358 7.790202 175 164 141
9.493574 -12.028310 5.061405 199 188 162
10.637039 -13.034043 7.988608 159 144 130
11.333618 -13.510807 5.849327 175 163 151
